# .PCD v0.7 - Point Cloud Data file format
VERSION 0.7
FIELDS x y z
SIZE 4 4 4
TYPE F F F
COUNT 1 1 1
WIDTH 1367
HEIGHT 1
VIEWPOINT 0 0 0 1 0 0 0
POINTS 1367
DATA ascii
0.15718874 -0.062464774 -0.12817287
0.1579456 -0.059887409 -0.12583619
0.1570048 -0.058157563 -0.1258347
0.15606397 -0.056427777 -0.12583321
0.15512314 -0.05469799 -0.12583166
0.15418234 -0.052968144 -0.12583017
0.15324152 -0.051238358 -0.12582868
0.15230072 -0.049508512 -0.12582713
0.15135986 -0.047778726 -0.12582564
0.15041903 -0.04604888 -0.12582415
0.14947823 -0.044319093 -0.1258226
0.1485374 -0.042589247 -0.12582111
0.14759657 -0.040859461 -0.12581962
0.14665577 -0.039129674 -0.12581813
0.1439797 -0.038178205 -0.12815166
0.14303616 -0.036443472 -0.12815017
0.14209265 -0.034708738 -0.12814867
0.14114919 -0.032973945 -0.12814713
0.14020565 -0.031239212 -0.12814564
0.13926217 -0.029504418 -0.12814415
0.13831866 -0.027769744 -0.1281426
0.13737512 -0.026034951 -0.12814111
0.13643166 -0.024300218 -0.12813962
0.13548815 -0.022565424 -0.12813807
0.13454461 -0.020830631 -0.12813658
0.13360116 -0.019095898 -0.12813503
0.13265759 -0.017361164 -0.12813354
0.13171408 -0.015626431 -0.12813205
0.12840688 -0.014837325 -0.13124382
0.12745982 -0.013096035 -0.13124228
0.1288836 -0.010422111 -0.12812752
0.12794012 -0.008687377 -0.12812597
0.12699658 -0.0069526434 -0.12812448
0.12605309 -0.0052178502 -0.12812293
0.12510958 -0.0034831762 -0.12812144
0.12416604 -0.0017483234 -0.12811995
0.12322256 -1.3649464e-05 -0.1281184
0.12227908 0.0017211437 -0.12811691
0.12133557 0.0034559369 -0.12811542
0.12039208 0.0051906109 -0.12811387
0.11944854 0.0069253445 -0.12811238
0.118505 0.0086601377 -0.12811089
0.11756152 0.010394931 -0.12810934
0.11661807 0.012129664 -0.12810785
0.11567453 0.013864398 -0.1281063
0.11473104 0.015599191 -0.12810481
0.11378756 0.017333925 -0.12810332
0.11284396 0.019068658 -0.12810177
0.11190048 0.020803452 -0.12810028
0.11095706 0.022538126 -0.12809879
0.11001348 0.024272919 -0.12809724
0.10907 0.026007712 -0.12809575
0.10812652 0.027742445 -0.12809426
0.10718295 0.029477239 -0.12809271
0.1062395 0.031211913 -0.12809122
0.10529602 0.032946706 -0.12808967
0.10188851 0.033920109 -0.13120133
0.10094139 0.035661459 -0.13119978
0.099994302 0.037402749 -0.13119829
0.099047244 0.039144099 -0.13119674
0.098100156 0.040885508 -0.13119525
0.097153097 0.042626798 -0.1311937
0.09620595 0.044368088 -0.13119221
0.097747952 0.046824694 -0.12807757
0.09680438 0.048559487 -0.12807608
0.095860958 0.05029428 -0.12807459
0.094917476 0.052029073 -0.12807304
0.093973905 0.053763747 -0.12807155
0.094910651 0.056010306 -0.12573516
0.095852822 0.05824697 -0.12339884
0.094914675 0.059971809 -0.12339735
0.093976617 0.061696649 -0.1233958
0.093038499 0.063421607 -0.12339431
0.092100322 0.065146446 -0.12339282
0.09116219 0.066871345 -0.12339133
0.090224057 0.068596244 -0.12338984
0.087384194 0.069848835 -0.12572312
0.08644332 0.071578622 -0.12572163
0.08740963 0.073770881 -0.12338531
0.086471498 0.07549572 -0.12338382
0.085533366 0.077220619 -0.12338227
0.084595203 0.078945518 -0.12338078
0.083657131 0.080670416 -0.12337929
0.082718998 0.082395256 -0.1233778
0.081780806 0.084120095 -0.12337631
0.080842704 0.085844994 -0.12337476
0.079904571 0.087569892 -0.12337327
0.078966439 0.089294761 -0.12337178
0.078028306 0.09101966 -0.12337029
0.077090174 0.09274447 -0.12336874
0.076152056 0.094469428 -0.12336725
0.075213939 0.096194237 -0.12336576
0.074275747 0.097919136 -0.12336427
0.073337615 0.099644005 -0.12336278
0.072399482 0.1013689 -0.12336123
0.071461365 0.10309383 -0.12335974
0.070523173 0.10481873 -0.12335825
0.069585115 0.10654354 -0.12335676
0.068646997 0.10826844 -0.12335521
0.067708865 0.10999331 -0.12335372
0.066770673 0.11171821 -0.12335223
0.06583254 0.11344308 -0.12335074
0.064894468 0.11516792 -0.12334925
0.063956305 0.11689284 -0.1233477
0.063018173 0.11861765 -0.12334621
0.062080041 0.12034255 -0.12334472
0.061141908 0.12206745 -0.12334323
0.060203746 0.12379238 -0.12334168
0.059265614 0.12551725 -0.12334019
0.058327481 0.12724215 -0.1233387
0.059382439 0.12927133 -0.1210025
0.058447003 0.13099131 -0.12100095
0.060176089 0.13310394 -0.11788666
0.059244215 0.1348173 -0.11788517
0.058312342 0.13653064 -0.11788368
0.057380497 0.138244 -0.11788219
0.056448624 0.13995737 -0.1178807
0.057528526 0.14194056 -0.11554462
0.056599364 0.14364901 -0.11554313
0.055670172 0.14535743 -0.11554164
0.16785562 0.16134709 0.01519835
0.16707678 0.16277903 0.015199602
0.16832329 0.16445607 0.017535448
0.16754721 0.16588306 0.0175367
0.16812482 0.16746691 0.019094288
0.16870607 0.16904411 0.020652056
0.16793355 0.17046446 0.020653248
0.16852018 0.17203182 0.022210896
0.16774946 0.17344898 0.022212088
0.16834138 0.17500642 0.023769677
0.16757245 0.17642021 0.023770928
0.16816984 0.17796791 0.025328577
0.16740268 0.17937842 0.025329769
0.1666355 0.18078893 0.02533102
0.16586833 0.18219942 0.025332272
0.16647463 0.18373057 0.026889801
0.16570927 0.18513775 0.026891053
0.16632098 0.1866591 0.028448641
0.16693617 0.1881738 0.03000623
0.1661744 0.18957436 0.030007422
0.16541262 0.19097507 0.030008674
0.16672714 0.19252697 0.032344401
0.16596808 0.19392276 0.032345593
0.16659668 0.19541276 0.033903182
0.16583937 0.19680509 0.033904433
0.16508202 0.19819757 0.033905625
0.16432478 0.19958994 0.033906817
0.1649624 0.20106351 0.035464346
0.16420682 0.2024526 0.035465539
0.16345137 0.20384166 0.03546679
0.16409621 0.20530218 0.037024319
0.16334242 0.20668799 0.037025571
0.16592355 0.21384892 0.044034958
0.16659074 0.21526816 0.045592487
0.16726145 0.21668079 0.047149897
0.16651936 0.21804515 0.047151089
0.16577722 0.21940964 0.047152281
0.16645521 0.2208091 0.04870975
0.16571485 0.22217032 0.048710942
0.16639818 0.22355989 0.050268412
0.16637227 0.22493032 0.051047802
0.16563471 0.22628647 0.051048994
0.1648971 0.22764266 0.051050186
0.16559023 0.22901422 0.052607596
0.17892134 -0.10469717 -0.13268119
0.17797422 -0.10295582 -0.13267964
0.17702717 -0.10121447 -0.13267815
0.17826349 -0.098207533 -0.12955785
0.17731997 -0.0964728 -0.12955636
0.17637649 -0.094738007 -0.12955487
0.17543298 -0.093003273 -0.12955332
0.17448947 -0.09126848 -0.12955183
0.17354599 -0.089533687 -0.12955028
0.17260247 -0.087799013 -0.12954879
0.17165896 -0.086064279 -0.1295473
0.17071545 -0.084329486 -0.12954575
0.16977194 -0.082594752 -0.12954426
0.17049304 -0.079960048 -0.1272037
0.16955224 -0.078230262 -0.12720215
0.16861141 -0.076500475 -0.12720066
0.16767058 -0.074770629 -0.12719917
0.16672978 -0.073040783 -0.12719768
0.16578892 -0.071310997 -0.12719613
0.16484812 -0.069581211 -0.12719464
0.16390729 -0.067851365 -0.12719315
0.16296646 -0.066121519 -0.1271916
0.16202569 -0.064391673 -0.12719011
0.16108486 -0.062661886 -0.12718862
0.16014406 -0.0609321 -0.12718707
0.1592032 -0.059202194 -0.12718558
0.1582624 -0.057472408 -0.12718409
0.1573216 -0.055742621 -0.1271826
0.15638077 -0.054012835 -0.12718105
0.15543994 -0.052282989 -0.12717956
0.15449911 -0.050553143 -0.12717807
0.15355828 -0.048823357 -0.12717652
0.15261745 -0.04709357 -0.12717503
0.15167665 -0.045363665 -0.12717354
0.15073583 -0.043633878 -0.12717199
0.14979503 -0.041904092 -0.1271705
0.1488542 -0.040174305 -0.12716901
0.14791337 -0.038444519 -0.12716752
0.14697257 -0.036714613 -0.12716597
0.14603174 -0.034984827 -0.12716448
0.14509094 -0.033255041 -0.12716299
0.14241034 -0.032286882 -0.12950039
0.1414668 -0.030552089 -0.1294989
0.14052331 -0.028817296 -0.12949741
0.13957983 -0.027082622 -0.12949586
0.13863626 -0.025347888 -0.12949437
0.13769281 -0.023613095 -0.12949288
0.13674927 -0.021878362 -0.12949133
0.13580576 -0.020143569 -0.12948984
0.1348623 -0.018408775 -0.12948829
0.13391876 -0.016674042 -0.1294868
0.13297525 -0.014939368 -0.12948531
0.13203177 -0.013204575 -0.12948376
0.13108823 -0.011469781 -0.12948227
0.13014475 -0.0097350478 -0.12948078
0.12920126 -0.0080003142 -0.12947923
0.12825772 -0.006265521 -0.12947774
0.12731427 -0.0045307279 -0.12947619
0.12637076 -0.0027961135 -0.1294747
0.12721536 -0.00038850307 -0.12713432
0.1262745 0.0013413429 -0.12713283
0.12533373 0.0030711293 -0.12713134
0.1243929 0.0048009753 -0.12712979
0.1216532 0.0058777332 -0.12946713
0.12251127 0.0082606077 -0.12712681
0.12157038 0.0099903941 -0.12712526
0.12062964 0.011720181 -0.12712377
0.11968878 0.013450027 -0.12712228
0.11874804 0.015179873 -0.12712073
0.11780718 0.016909719 -0.12711924
0.11686635 0.018639565 -0.12711775
0.11592555 0.020369291 -0.12711626
0.11498475 0.022099137 -0.12711471
0.11221817 0.023225248 -0.12945205
0.11127463 0.024960101 -0.1294505
0.11033115 0.026694775 -0.12944901
0.1093877 0.028429508 -0.12944752
0.10844415 0.030164361 -0.12944597
0.10750067 0.031899035 -0.12944448
0.10655713 0.033633769 -0.12944293
0.10561359 0.035368562 -0.12944144
0.10467017 0.037103295 -0.12943995
0.10372666 0.038838029 -0.1294384
0.10278311 0.040572822 -0.12943691
0.10183963 0.042307615 -0.12943542
0.10089612 0.044042349 -0.12943387
0.099952549 0.045777023 -0.12943238
0.099009126 0.047511876 -0.12943083
0.098065585 0.049246609 -0.12942934
0.097122073 0.050981343 -0.12942785
0.096178591 0.052716136 -0.1294263
0.097109079 0.054965675 -0.1270861
0.098045021 0.05720526 -0.12474591
0.097106874 0.058930159 -0.12474442
0.096168756 0.060655057 -0.12474293
0.095230609 0.062379897 -0.12474138
0.094292507 0.064104795 -0.12473989
0.093354389 0.065829635 -0.1247384
0.092416197 0.067554533 -0.12473691
0.091478065 0.069279373 -0.12473541
0.090539932 0.071004272 -0.12473387
0.089601815 0.07272923 -0.12473238
0.088663623 0.074454129 -0.12473089
0.087725505 0.076178908 -0.12472939
0.086787373 0.077903807 -0.12472785
0.087760866 0.08007431 -0.12238765
0.086825415 0.081794202 -0.12238616
0.085889995 0.083514214 -0.12238467
0.08495453 0.085234106 -0.12238312
0.08401905 0.086954117 -0.12238163
0.083083659 0.088673979 -0.12238014
0.08214815 0.090393931 -0.12237865
0.081212714 0.092113972 -0.12237716
0.080277294 0.093833923 -0.12237567
0.077406064 0.095152646 -0.12471282
0.076467931 0.096877545 -0.12471133
0.075529799 0.098602355 -0.12470984
0.074591666 0.10032725 -0.12470835
0.073653474 0.10205206 -0.1247068
0.074664578 0.10415348 -0.12236667
0.073729128 0.10587341 -0.12236518
0.070839107 0.10722679 -0.12470233
0.071858242 0.10931328 -0.12236214
0.070922822 0.11103323 -0.12236065
0.069987372 0.11275321 -0.12235916
0.067086548 0.11412624 -0.12469631
0.066148475 0.11585113 -0.12469482
0.065210372 0.11757606 -0.12469327
0.06427224 0.11930096 -0.12469178
0.063334048 0.12102577 -0.12469029
0.062395915 0.12275067 -0.1246888
0.061457813 0.12447554 -0.12468725
0.06250371 0.12651271 -0.12234718
0.06156829 0.12823266 -0.12234569
0.060632825 0.12995258 -0.1223442
0.059697405 0.13167253 -0.12234265
0.061421692 0.13378266 -0.11922324
0.060489818 0.13549596 -0.11922175
0.059558019 0.13720927 -0.11922026
0.058626115 0.13892269 -0.11921877
0.059699759 0.1409089 -0.11687881
0.058770597 0.14261734 -0.11687732
0.057841375 0.14432579 -0.11687583
0.16699064 0.16013834 0.010962129
0.16620821 0.16157687 0.01096338
0.16811784 0.16334611 0.014082551
0.167339 0.16477805 0.014083803
0.16858469 0.16644827 0.016423523
0.16915987 0.16803074 0.017983735
0.16838558 0.16945446 0.017984986
0.16896623 0.17102712 0.019545197
0.16819367 0.17244747 0.019546449
0.16877967 0.17401028 0.021106601
0.16800888 0.17542732 0.021107852
0.16860034 0.17698023 0.022668004
0.16783141 0.17839402 0.022669256
0.1670624 0.17980787 0.022670448
0.16629347 0.18122169 0.0226717
0.16689381 0.18275809 0.024231911
0.16612668 0.18416864 0.024233103
0.1667323 0.18569517 0.025793314
0.16734162 0.18721521 0.027353466
0.16657804 0.18861914 0.027354717
0.16581441 0.19002306 0.027355909
0.16643089 0.19152978 0.028916061
0.16566905 0.19293043 0.028917253
0.16698276 0.19447559 0.031256795
0.16622365 0.19587123 0.031258047
0.16546451 0.197267 0.031259239
0.16470541 0.1986627 0.03126049
0.1653371 0.20014146 0.032820582
0.16597228 0.20161369 0.034380734
0.16521676 0.20300278 0.034381926
0.1644613 0.2043919 0.034383178
0.16510369 0.20585111 0.03594327
0.16434996 0.20723692 0.035944521
0.16692021 0.21439192 0.042965472
0.16617461 0.21576294 0.042966664
0.16684127 0.21717763 0.044526756
0.16609731 0.21854535 0.044527948
0.16535339 0.21991315 0.04452914
0.16602719 0.22131449 0.046089113
0.16670442 0.22270936 0.047649145
0.16738532 0.22409776 0.049209177
0.16664688 0.22545561 0.04921037
0.16590831 0.22681344 0.049211562
0.16516985 0.22817123 0.049212754
0.16514549 0.22953609 0.049993396
0.17952469 -0.097520351 -0.13091111
0.17858118 -0.095785677 -0.13090962
0.1776377 -0.094050884 -0.13090813
0.17669418 -0.092316091 -0.13090658
0.1757507 -0.090581357 -0.13090509
0.17480719 -0.088846624 -0.13090354
0.17386368 -0.087111831 -0.13090205
0.17292017 -0.085377097 -0.13090056
0.17363226 -0.082734466 -0.12855607
0.17269146 -0.081004679 -0.12855458
0.17175066 -0.079274893 -0.12855309
0.17080984 -0.077545106 -0.12855154
0.17153528 -0.074927151 -0.12620717
0.1705972 -0.073202312 -0.12620568
0.16965902 -0.071477473 -0.12620419
0.1687209 -0.069752574 -0.1262027
0.16778275 -0.068027616 -0.12620115
0.16684464 -0.066302776 -0.12619966
0.16590649 -0.064577937 -0.12619817
0.16496834 -0.062853098 -0.12619668
0.16403022 -0.061128139 -0.12619513
0.16309211 -0.059403241 -0.12619364
0.16215396 -0.057678401 -0.12619215
0.16121581 -0.055953562 -0.12619066
0.16027769 -0.054228604 -0.12618917
0.15933958 -0.052503765 -0.12618762
0.1584014 -0.050778925 -0.12618613
0.15746331 -0.049054027 -0.12618464
0.15652516 -0.047329128 -0.12618315
0.15558705 -0.045604229 -0.1261816
0.1546489 -0.04387939 -0.12618011
0.15199345 -0.042948723 -0.12852138
0.15105262 -0.041218936 -0.12851989
0.15011182 -0.03948915 -0.1285184
0.14917099 -0.037759304 -0.12851691
0.14823017 -0.036029458 -0.12851536
0.14728937 -0.034299672 -0.12851387
0.14634854 -0.032569826 -0.12851238
0.14540768 -0.030840039 -0.12851083
0.14446688 -0.029110193 -0.12850934
0.14352605 -0.027380407 -0.12850785
0.14258525 -0.02565062 -0.12850636
0.14164442 -0.023920774 -0.12850481
0.14070365 -0.022190928 -0.12850332
0.13976282 -0.020461082 -0.12850183
0.13882199 -0.018731236 -0.12850028
0.13788119 -0.01700151 -0.12849879
0.13694036 -0.015271664 -0.1284973
0.1359995 -0.013541818 -0.12849575
0.13329297 -0.012517452 -0.13083702
0.13234946 -0.010782719 -0.13083553
0.13317707 -0.0083523989 -0.12849128
0.13223624 -0.0066226125 -0.12848973
0.13129538 -0.0048927069 -0.12848824
0.13035461 -0.0031629801 -0.12848675
0.12941378 -0.0014331341 -0.1284852
0.1302574 0.00096750259 -0.12614101
0.12931925 0.0026923418 -0.12613952
0.1283811 0.0044172406 -0.12613803
0.12744305 0.0061421394 -0.12613654
0.1247097 0.0072159171 -0.12847769
0.12376881 0.0089458227 -0.1284762
0.12462863 0.011316776 -0.12613201
0.12369046 0.013041675 -0.12613052
0.12275234 0.014766514 -0.12612903
0.12181419 0.016491413 -0.12612748
0.12087607 0.018216252 -0.12612599
0.11993796 0.019941211 -0.1261245
0.11899984 0.02166605 -0.12612301
0.11806169 0.023390889 -0.12612152
0.11530149 0.024514139 -0.12846261
0.11436066 0.026243985 -0.12846112
0.11341986 0.027973771 -0.12845957
0.11247903 0.029703557 -0.12845808
0.11153823 0.031433344 -0.12845659
0.11059743 0.03316319 -0.12845504
0.10965654 0.034893036 -0.12845355
0.10687485 0.036055684 -0.1307947
0.10593131 0.037790418 -0.13079321
0.10498783 0.03952527 -0.13079166
0.10404432 0.041259944 -0.13079017
0.10310084 0.042994738 -0.13078868
0.10215732 0.044729471 -0.13078713
0.10121384 0.046464205 -0.13078564
0.10213006 0.048731565 -0.12844151
0.1011892 0.050461352 -0.12844002
0.10024837 0.052191138 -0.12843847
0.10117525 0.05443871 -0.12609446
0.10023713 0.056163609 -0.12609291
0.099299014 0.057888567 -0.12609142
0.10023662 0.060116231 -0.12374735
0.099301174 0.061836243 -0.12374586
0.098365739 0.063556194 -0.12374431
0.097430289 0.065276086 -0.12374282
0.096494868 0.066996038 -0.12374133
0.095559359 0.068716049 -0.12373984
0.094623983 0.070436001 -0.12373835
0.093688473 0.072155893 -0.12373686
0.092753023 0.073875785 -0.12373531
0.091817603 0.075595796 -0.12373382
0.090882137 0.077315688 -0.12373233
0.089946717 0.07903564 -0.12373084
0.089011267 0.080755532 -0.12372935
0.088075817 0.082475483 -0.12372786
0.087140322 0.084195495 -0.12372637
0.086204872 0.085915387 -0.12372482
0.085269451 0.087635368 -0.12372333
0.084334001 0.08935526 -0.12372184
0.083398551 0.091075242 -0.12372035
0.082463115 0.092795193 -0.12371886
0.081527695 0.094515175 -0.12371737
0.080592185 0.096235067 -0.12371588
0.079656735 0.097954988 -0.12371433
0.0787213 0.09967494 -0.12371284
0.07778585 0.10139486 -0.12371135
0.076850429 0.10311481 -0.12370986
0.075914979 0.10483474 -0.12370837
0.074979514 0.10655463 -0.12370688
0.074044034 0.10827467 -0.12370533
0.073108584 0.10999456 -0.12370384
0.072173163 0.1117146 -0.12370235
0.071237698 0.11343449 -0.12370086
0.070302248 0.11515442 -0.12369937
0.069366828 0.11687437 -0.12369788
0.068431377 0.11859429 -0.12369639
0.067495942 0.12031424 -0.12369484
0.066560492 0.12203416 -0.12369335
0.065625072 0.12375411 -0.12369186
0.064689621 0.12547404 -0.12369037
0.063754171 0.12719393 -0.12368888
0.062818736 0.12891391 -0.12368739
0.064531118 0.13103449 -0.12056279
0.063599214 0.13274792 -0.1205613
0.06266734 0.13446122 -0.12055981
0.061735466 0.13617456 -0.12055832
0.062800184 0.13816869 -0.11821449
0.061871007 0.13987714 -0.118213
0.060941815 0.14158556 -0.11821151
0.060012653 0.14329401 -0.11821002
0.059083492 0.14500245 -0.11820853
0.16669635 0.16053742 0.0082784295
0.16725403 0.16214666 0.0098412037
0.16647168 0.16358516 0.0098424554
0.16703472 0.16518444 0.01140523
0.16760124 0.16677716 0.012968063
0.168846 0.16844043 0.015311658
0.1694206 0.17001835 0.016874373
0.16864631 0.17144206 0.016875625
0.16922633 0.17301008 0.018438399
0.16845383 0.17443049 0.018439651
0.16768125 0.1758509 0.018440902
0.16826846 0.17740577 0.020003617
0.16749772 0.17882288 0.020004809
0.16672699 0.18023992 0.020006061
0.16595627 0.18165711 0.020007312
0.16655242 0.18319547 0.021570086
0.16578344 0.18460932 0.021571279
0.16638497 0.18613786 0.023134053
0.16561781 0.18754834 0.023135304
0.16622467 0.18906701 0.024697959
0.16683514 0.19057912 0.026260734
0.16607156 0.19198298 0.026261985
0.16530801 0.193387 0.026263177
0.16454443 0.19479087 0.026264429
0.16516383 0.19628647 0.027827084
0.16440199 0.19768718 0.027828276
0.16364029 0.19908777 0.027829528
0.16496104 0.20061114 0.030172944
0.16559207 0.20208538 0.031735659
0.1662267 0.20355302 0.033298254
0.16547118 0.20494217 0.033299506
0.16471568 0.20633125 0.033300698
0.16396017 0.20772046 0.03330189
0.16515149 0.21343347 0.037991166
0.16580763 0.2148616 0.039553761
0.16717136 0.216306 0.041897118
0.16642575 0.21767703 0.04189831
0.16567998 0.21904808 0.041899502
0.16493437 0.22041911 0.041900694
0.16560388 0.2218225 0.043463349
0.16627702 0.22321934 0.045025945
0.16695367 0.22460967 0.04658854
0.16621338 0.22597086 0.046589732
0.16689549 0.22735131 0.048152328
0.16615698 0.22870913 0.04815352
0.17984238 -0.095098495 -0.13226289
0.17889893 -0.093363762 -0.1322614
0.17795539 -0.091628969 -0.13225985
0.17701188 -0.089894235 -0.13225836
0.17606843 -0.088159502 -0.13225681
0.17512488 -0.086424708 -0.13225532
0.17418134 -0.084689975 -0.13225383
0.17488989 -0.08204931 -0.12990552
0.17394906 -0.080319524 -0.12990403
0.17300826 -0.078589737 -0.12990254
0.17206746 -0.076859951 -0.12990099
0.17278934 -0.074243963 -0.12755275
0.17185119 -0.072519124 -0.12755126
0.17091307 -0.070794284 -0.12754977
0.16997489 -0.069069386 -0.12754828
0.16903681 -0.067344427 -0.12754673
0.16809866 -0.065619588 -0.12754524
0.16716054 -0.063894749 -0.12754375
0.16622236 -0.06216985 -0.12754226
0.16528428 -0.060444891 -0.12754071
0.166033 -0.057878435 -0.12519252
0.1650975 -0.056158543 -0.12519103
0.1641621 -0.054438531 -0.12518954
0.16322663 -0.052718639 -0.12518805
0.16229117 -0.050998628 -0.12518656
0.16135573 -0.049278736 -0.12518501
0.1604203 -0.047558725 -0.12518352
0.15948483 -0.045838833 -0.12518203
0.1585494 -0.044118941 -0.12518054
0.15761396 -0.042398989 -0.12517905
0.15496477 -0.041471243 -0.1275242
0.15402666 -0.039746463 -0.12752271
0.15308851 -0.038021505 -0.12752122
0.15215039 -0.036296666 -0.12751967
0.15121228 -0.034571767 -0.12751818
0.15027413 -0.032846928 -0.12751669
0.14933601 -0.031121969 -0.1275152
0.14839783 -0.02939713 -0.12751365
0.14745972 -0.027672231 -0.12751216
0.14652157 -0.025947392 -0.12751067
0.14558345 -0.024222493 -0.12750918
0.14464527 -0.022497594 -0.12750769
0.14370722 -0.020772696 -0.12750614
0.14276904 -0.019047916 -0.12750465
0.14183092 -0.017323017 -0.12750316
0.14089277 -0.015598059 -0.12750167
0.13995466 -0.013873219 -0.12750012
0.13901648 -0.01214838 -0.12749863
0.1363163 -0.011126816 -0.12984371
0.1353755 -0.0093970299 -0.12984222
0.13620216 -0.0069737434 -0.12749416
0.13526398 -0.0052488446 -0.12749261
0.13432586 -0.0035239458 -0.12749112
0.13338771 -0.001799047 -0.12748963
0.1324496 -7.4207783e-05 -0.12748814
0.13151142 0.001650691 -0.12748659
0.1305733 0.0033755898 -0.1274851
0.12963513 0.0051004887 -0.12748361
0.12869707 0.0068253279 -0.12748212
0.12775892 0.0085501671 -0.12748063
0.12682077 0.010275066 -0.12747908
0.12588263 0.011999965 -0.12747759
0.12494454 0.013724864 -0.1274761
0.12400633 0.015449762 -0.12747461
0.12487328 0.01779896 -0.12512654
0.12393785 0.019518912 -0.12512505
0.12300232 0.021238923 -0.12512356
0.12206692 0.022958875 -0.12512207
0.12113145 0.024678767 -0.12512058
0.11837757 0.025799036 -0.12746555
0.11743945 0.027523816 -0.12746406
0.11650127 0.029248774 -0.12746257
0.11556315 0.030973673 -0.12746108
0.11462507 0.032698452 -0.12745953
0.11368695 0.034423351 -0.12745804
0.11274877 0.03614831 -0.12745655
0.10997334 0.037307978 -0.12980151
0.1090326 0.039037824 -0.12980002
0.10809171 0.04076767 -0.12979847
0.10715091 0.042497456 -0.12979698
0.10621011 0.044227302 -0.12979549
0.10526922 0.045957088 -0.12979394
0.10432848 0.047686934 -0.12979245
0.10524368 0.049947321 -0.12744451
0.1043056 0.05167222 -0.12744302
0.10336745 0.053397059 -0.12744153
0.10429341 0.055637717 -0.12509358
0.10335791 0.057357609 -0.12509209
0.10242248 0.059077561 -0.1250906
0.10148703 0.060797572 -0.12508911
0.10055156 0.062517464 -0.12508762
0.09961614 0.064237416 -0.12508607
0.09868069 0.065957308 -0.12508458
0.09774527 0.067677319 -0.12508309
0.096809745 0.069397271 -0.1250816
0.095874384 0.071117222 -0.12508011
0.094938874 0.072837114 -0.12507862
0.094003424 0.074557066 -0.12507707
0.093067989 0.076277018 -0.12507558
0.092132539 0.07799691 -0.12507409
0.091197118 0.079716861 -0.1250726
0.090261668 0.081436813 -0.12507111
0.089326218 0.083156705 -0.12506962
0.090937108 0.085452527 -0.12193972
0.090005293 0.087165833 -0.12193823
0.08907339 0.088879257 -0.12193674
0.088141531 0.090592563 -0.12193525
0.084648997 0.091756463 -0.12506211
0.083713576 0.093476444 -0.12506062
0.082778156 0.095196396 -0.12505913
0.081842646 0.096916318 -0.12505764
0.080907181 0.09863621 -0.12505609
0.079971761 0.10035619 -0.1250546
0.07903631 0.10207608 -0.12505311
0.07810089 0.10379606 -0.12505162
0.077165425 0.10551596 -0.12505013
0.076229975 0.10723588 -0.12504864
0.077890992 0.10943955 -0.1219188
0.076959118 0.11115286 -0.12191731
0.076027259 0.11286622 -0.12191582
0.075095356 0.11457965 -0.12191433
0.074163541 0.11629289 -0.12191284
0.073231697 0.11800635 -0.12191135
0.072299764 0.11971971 -0.12190986
0.07136789 0.12143302 -0.12190837
0.070436046 0.12314638 -0.12190682
0.069504231 0.12485975 -0.12190533
0.068572253 0.12657315 -0.12190384
0.067640468 0.12828645 -0.12190235
0.066708595 0.12999982 -0.12190086
0.065776721 0.13171318 -0.12189937
0.064844817 0.13342655 -0.12189788
0.065900594 0.13542861 -0.11955017
0.064971402 0.13713703 -0.11954868
0.06404224 0.13884541 -0.11954719
0.063113078 0.14055386 -0.1195457
0.062183887 0.14226225 -0.11954421
0.061254725 0.1439707 -0.11954272
0.16852875 0.15966675 0.0071524382
0.16774459 0.16110852 0.0071536899
0.16829987 0.16271642 0.0087190866
0.16751751 0.16415495 0.0087203383
0.16807814 0.16575292 0.010285676
0.1672975 0.16718811 0.010286927
0.16988336 0.16900569 0.014198482
0.16910727 0.17043269 0.014199734
0.16833118 0.17185962 0.014200985
0.16890702 0.17342964 0.015766263
0.16813271 0.17485332 0.015767515
0.16735835 0.17627704 0.015768766
0.16794136 0.17783388 0.017334163
0.16852799 0.17938417 0.018899381
0.1677572 0.18080121 0.018900633
0.16698648 0.18221837 0.018901885
0.16621576 0.18363541 0.018903136
0.1668113 0.18516928 0.020468354
0.16604236 0.1865831 0.020469606
0.16664328 0.18810707 0.022035003
0.16587615 0.18951762 0.022036195
0.1664824 0.19103161 0.023601472
0.16571704 0.19243884 0.023602664
0.16495168 0.19384608 0.023603916
0.16556512 0.19534701 0.025169194
0.16480151 0.19675097 0.025170386
0.16403794 0.19815487 0.025171638
0.16327438 0.19955882 0.02517283
0.16389674 0.20104328 0.026738107
0.16521664 0.20255971 0.029085338
0.16584705 0.20402929 0.030650616
0.1650898 0.20542169 0.030651867
0.16357514 0.20820656 0.030654252
0.16615422 0.21397981 0.036915243
0.1668079 0.2154066 0.038480401
0.16605963 0.21678257 0.038481593
0.16531126 0.21815848 0.038482785
0.16667676 0.21959108 0.040830016
0.16593109 0.22096211 0.040831208
0.16659828 0.22236425 0.042396426
0.16585435 0.22373202 0.042397618
0.16794327 0.22514889 0.045526743
0.16720298 0.22651002 0.045527935
0.16646267 0.22787115 0.045529127
0.16714418 0.22924694 0.047094285
0.17921659 -0.090941846 -0.13361311
0.17827305 -0.089207172 -0.13361162
0.17732957 -0.087472379 -0.13361007
0.17638609 -0.085737586 -0.13360858
0.17544255 -0.084002912 -0.13360709
0.17614746 -0.081364214 -0.13125491
0.17520666 -0.079634368 -0.13125342
0.17426583 -0.077904582 -0.13125193
0.17498147 -0.075285614 -0.12889987
0.17404333 -0.073560774 -0.12889832
0.17310521 -0.071835876 -0.12889683
0.17216706 -0.070110977 -0.12889534
0.17289612 -0.067516744 -0.12654322
0.17196065 -0.065796793 -0.12654173
0.17102522 -0.0640769 -0.12654024
0.17008978 -0.062356949 -0.12653875
0.16915432 -0.060636997 -0.1265372
0.16821891 -0.058917046 -0.12653571
0.16728345 -0.057197154 -0.12653422
0.16634798 -0.055477202 -0.12653273
0.16541255 -0.05375725 -0.12653124
0.16447708 -0.052037299 -0.12652975
0.16354164 -0.050317347 -0.12652826
0.16260618 -0.048597395 -0.12652671
0.16167074 -0.046877444 -0.12652522
0.16073531 -0.045157552 -0.12652373
0.15979984 -0.04343766 -0.12652224
0.15886441 -0.041717589 -0.12652075
0.15792891 -0.039997697 -0.12651926
0.15528065 -0.039063215 -0.12886828
0.15434253 -0.037338257 -0.12886679
0.15340438 -0.035613418 -0.12886524
0.15246624 -0.033888578 -0.12886375
0.15152809 -0.03216368 -0.12886226
0.15058997 -0.030438781 -0.12886077
0.14965189 -0.028713942 -0.12885922
0.14871374 -0.026989043 -0.12885773
0.14777559 -0.025264144 -0.12885624
0.14683747 -0.023539245 -0.12885475
0.14589933 -0.021814406 -0.12885326
0.14496118 -0.020089507 -0.12885171
0.14402303 -0.018364668 -0.12885022
0.14483264 -0.015918553 -0.12649822
0.14389724 -0.014198542 -0.12649673
0.14296177 -0.01247865 -0.12649524
0.14202631 -0.010758758 -0.12649375
0.13933238 -0.0097402334 -0.12884271
0.13839427 -0.0080153942 -0.12884122
0.13745612 -0.0062904954 -0.12883973
0.13651797 -0.0045655966 -0.12883818
0.13557982 -0.0028406978 -0.12883669
0.13464177 -0.0011158586 -0.1288352
0.13370359 0.00060904026 -0.12883371
0.13276547 0.0023338795 -0.12883216
0.13182729 0.0040587783 -0.12883067
0.13088918 0.0057836175 -0.12882918
0.12995103 0.0075085759 -0.12882769
0.12901291 0.0092334747 -0.1288262
0.12807474 0.010958314 -0.12882465
0.12713659 0.012683153 -0.12882316
0.12619853 0.014408052 -0.12882167
0.12705916 0.016760349 -0.12646979
0.12612373 0.018480301 -0.12646824
0.12518826 0.020200253 -0.12646675
0.12425277 0.021920204 -0.12646526
0.12331733 0.023640156 -0.12646377
0.1223819 0.025360048 -0.12646228
0.12144646 0.027080059 -0.12646079
0.11869344 0.028207064 -0.12880963
0.11775535 0.029932022 -0.12880814
0.11681721 0.031656861 -0.12880665
0.11587903 0.033381701 -0.1288051
0.11494088 0.035106599 -0.12880361
0.11400279 0.036831558 -0.12880212
0.111231 0.037993133 -0.1311509
0.11029011 0.039722919 -0.13114941
0.10934931 0.041452765 -0.13114786
0.10840848 0.043182611 -0.13114637
0.10746768 0.044912338 -0.13114488
0.10652688 0.046642184 -0.13114333
0.10743582 0.048905611 -0.12879157
0.10835022 0.051159203 -0.12643981
0.10741478 0.052879095 -0.12643826
0.10647932 0.054599047 -0.12643677
0.10554388 0.056318998 -0.12643528
0.10709266 0.05871737 -0.12330019
0.10616082 0.060430765 -0.1232987
0.10522896 0.06214416 -0.12329715
0.10429706 0.063857555 -0.12329566
0.10336518 0.065570891 -0.12329417
0.10243331 0.067284167 -0.12329268
0.10150144 0.068997562 -0.12329119
0.10056959 0.070711017 -0.1232897
0.099637732 0.072424293 -0.12328821
0.098705858 0.074137628 -0.12328672
0.097773954 0.075851023 -0.12328523
0.09684214 0.077564359 -0.12328374
0.095910296 0.079277754 -0.12328225
0.094978422 0.080991089 -0.12328076
0.094046488 0.082704484 -0.12327927
0.093114644 0.08441785 -0.12327778
0.092182785 0.086131155 -0.12327629
0.091250911 0.087844521 -0.1232748
0.090319067 0.089557886 -0.12327331
0.089387193 0.091271222 -0.12327182
0.088455319 0.092984587 -0.12327027
0.087523416 0.094698012 -0.12326878
0.086591557 0.096411318 -0.12326729
0.085659742 0.098124653 -0.1232658
0.084727898 0.099838078 -0.12326431
0.083795965 0.10155138 -0.12326282
0.082864091 0.10326469 -0.12326133
0.081932217 0.10497808 -0.12325984
0.081000373 0.10669145 -0.12325835
0.080068514 0.10840476 -0.12325686
0.07913667 0.11011818 -0.12325537
0.078204796 0.11183155 -0.12325388
0.077272862 0.11354488 -0.12325239
0.076341018 0.11525825 -0.1232509
0.07736361 0.11731267 -0.12089932
0.076434433 0.11902115 -0.12089783
0.075505242 0.12072954 -0.12089634
0.07457608 0.12243792 -0.12089485
0.073646888 0.12414631 -0.12089336
0.070749789 0.12553847 -0.1232419
0.069817975 0.12725171 -0.12324041
0.068886131 0.12896514 -0.12323892
0.069930211 0.13098007 -0.1208874
0.069001019 0.13268843 -0.12088591
0.068071857 0.13439688 -0.12088442
0.067142665 0.13610527 -0.12088293
0.066213474 0.13781366 -0.12088144
0.065284312 0.13952214 -0.12087995
0.066347316 0.14150247 -0.11852831
0.065420806 0.14320588 -0.11852682
0.064494312 0.14490941 -0.11852533
0.1675768 0.15998071 0.0036776662
0.16879274 0.16167954 0.0060290098
0.16800858 0.16312134 0.0060302615
0.16856326 0.16472468 0.0075981617
0.16778092 0.16616318 0.0075994134
0.16834095 0.16775662 0.0091673732
0.16890453 0.16934338 0.010735273
0.16812575 0.17077532 0.010736525
0.16936859 0.17242482 0.013087809
0.1685925 0.17385179 0.013089061
0.16916773 0.17541718 0.014656901
0.16839343 0.17684093 0.014658153
0.16761914 0.17826465 0.014659345
0.16820154 0.17981687 0.016227305
0.16742897 0.18123734 0.016228557
0.16665645 0.18265766 0.016229808
0.16724603 0.18419671 0.017797649
0.16647524 0.18561381 0.017798841
0.16707018 0.18714306 0.019366741
0.16630131 0.18855691 0.019367993
0.16690156 0.19007629 0.020935833
0.16613446 0.19148672 0.020937085
0.16674012 0.19299626 0.022504926
0.16597477 0.19440344 0.022506177
0.16383298 0.19571832 0.020940781
0.164444 0.19721791 0.022508621
0.16505867 0.19871092 0.024076462
0.16429503 0.20011488 0.024077654
0.16353147 0.20151883 0.024078906
0.16415329 0.20299864 0.025646687
0.16339146 0.20439929 0.025647879
0.16262962 0.20579991 0.02564913
0.16435754 0.21442693 0.032706141
0.16640681 0.21590528 0.035840511
0.16565667 0.21728456 0.035841703
0.16631153 0.21870354 0.037409425
0.16556324 0.22007942 0.037410617
0.16692787 0.22150514 0.039761662
0.16618216 0.22287619 0.039762855
0.16684879 0.22427377 0.041330695
0.16751887 0.22566465 0.042898357
0.16677672 0.22702914 0.042899549
0.16603464 0.22839355 0.042900741
0.16671194 0.22977141 0.044468462
0.17953426 -0.08851999 -0.13496488
0.17859074 -0.086785257 -0.13496333
0.17764726 -0.085050464 -0.13496184
0.17834595 -0.082408845 -0.13260585
0.17740509 -0.080678999 -0.1326043
0.17646426 -0.078949213 -0.13260281
0.17552346 -0.077219427 -0.13260132
0.1762355 -0.074602425 -0.13024539
0.17529735 -0.072877526 -0.13024384
0.17435923 -0.071152687 -0.13024235
0.175082 -0.068555474 -0.12788641
0.17414653 -0.066835463 -0.12788492
0.1732111 -0.065115571 -0.12788343
0.17227563 -0.063395619 -0.12788194
0.17134017 -0.061675668 -0.12788045
0.17040473 -0.059955776 -0.1278789
0.16946933 -0.058235824 -0.12787741
0.16853386 -0.056515872 -0.12787592
0.16759843 -0.054795921 -0.12787443
0.1689097 -0.051972151 -0.12473381
0.16797787 -0.050258815 -0.12473232
0.16704595 -0.04854548 -0.12473083
0.16611412 -0.046832085 -0.12472934
0.16518223 -0.04511869 -0.12472785
0.16198573 -0.04447633 -0.12786543
0.16105029 -0.042756319 -0.12786394
0.16011485 -0.041036367 -0.12786245
0.15917933 -0.039316475 -0.12786096
0.15824392 -0.037596524 -0.12785941
0.15730846 -0.035876572 -0.12785792
0.15637302 -0.034156621 -0.12785643
0.15543759 -0.032436728 -0.12785494
0.15450212 -0.030716836 -0.12785345
0.15356672 -0.028996825 -0.12785196
0.15263119 -0.027276874 -0.12785047
0.15169576 -0.025556922 -0.12784892
0.15076032 -0.02383703 -0.12784743
0.14982486 -0.022117019 -0.12784594
0.14888945 -0.020397067 -0.12784445
0.14795399 -0.018677175 -0.12784296
0.14701855 -0.016957223 -0.12784147
0.14608309 -0.015237272 -0.12783992
0.14514765 -0.01351732 -0.12783843
0.14421219 -0.011797428 -0.12783694
0.14327675 -0.010077536 -0.12783545
0.14234132 -0.0083575249 -0.12783396
0.14140588 -0.0066375732 -0.12783247
0.14047045 -0.0049176216 -0.12783098
0.13953498 -0.0031977296 -0.12782943
0.13859949 -0.0014777184 -0.12782794
0.13766405 0.00024223328 -0.12782645
0.13672861 0.0019621253 -0.12782496
0.13579318 0.0036820769 -0.12782347
0.13485771 0.0054020286 -0.12782198
0.13392231 0.0071219802 -0.12782049
0.13298684 0.0088418722 -0.12781894
0.13205135 0.010561764 -0.12781745
0.13111591 0.012281775 -0.12781596
0.13018045 0.014001727 -0.12781447
0.12924504 0.015721679 -0.12781298
0.12830961 0.017441571 -0.12781149
0.12737417 0.019161582 -0.12780994
0.12643874 0.020881474 -0.12780845
0.12550321 0.022601426 -0.12780696
0.12456778 0.024321377 -0.12780547
0.12363234 0.026041329 -0.12780398
0.12269691 0.027761281 -0.12780249
0.12176147 0.029481173 -0.127801
0.12082601 0.031201124 -0.12779945
0.11989057 0.032921076 -0.12779796
0.11895514 0.034640968 -0.12779647
0.11801964 0.036360979 -0.12779498
0.11708421 0.038080871 -0.12779349
0.11431864 0.039239585 -0.13014615
0.11338058 0.040964425 -0.13014466
0.11244237 0.042689264 -0.13014311
0.11150429 0.044414222 -0.13014162
0.11056614 0.046139121 -0.13014013
0.10962802 0.04786402 -0.13013864
0.10868981 0.049588799 -0.13013709
0.10960063 0.051840425 -0.12778151
0.10866517 0.053560376 -0.12777996
0.11020201 0.055969417 -0.12463975
0.10927016 0.057682753 -0.12463826
0.10833834 0.059396029 -0.12463677
0.1092687 0.061611533 -0.12228113
0.10833953 0.063319981 -0.12227964
0.10741034 0.065028369 -0.12227815
0.10648115 0.066736758 -0.12227666
0.10555199 0.068445206 -0.12227517
0.10462283 0.070153654 -0.12227368
0.10369363 0.071861982 -0.12227219
0.10276441 0.07357049 -0.1222707
0.10183522 0.075278938 -0.12226921
0.10090606 0.076987326 -0.12226772
0.099976867 0.078695714 -0.12226623
0.099047706 0.080404162 -0.12226474
0.098118514 0.082112491 -0.12226325
0.097189337 0.083820939 -0.12226176
0.096260145 0.085529357 -0.12226027
0.095330983 0.087237805 -0.12225884
0.094401792 0.088946193 -0.12225735
0.09347263 0.090654641 -0.12225586
0.092543438 0.09236306 -0.12225437
0.091614276 0.094071507 -0.12225288
0.090685084 0.095779896 -0.12225139
0.089755863 0.097488344 -0.1222499
0.088826701 0.099196792 -0.12224841
0.085973501 0.10051671 -0.12460089
0.085041627 0.10223001 -0.1245994
0.084109768 0.10394341 -0.12459791
0.085109979 0.10603043 -0.12224245
0.084180802 0.10773885 -0.12224096
0.083251625 0.10944724 -0.12223947
0.082322374 0.11115569 -0.12223798
0.081393212 0.11286414 -0.12223649
0.08046402 0.1145725 -0.122235
0.079534858 0.11628094 -0.12223351
0.078605667 0.11798933 -0.12223202
0.077676505 0.11969778 -0.12223053
0.076747313 0.1214062 -0.12222904
0.075818151 0.12311465 -0.12222755
0.07488896 0.12482303 -0.12222606
0.073959798 0.12653148 -0.12222457
0.073030636 0.12823993 -0.12222308
0.074071273 0.13025278 -0.11986762
0.073144704 0.13195625 -0.11986613
0.072218224 0.13365978 -0.11986464
0.069313854 0.13507357 -0.12221712
0.07036525 0.13706675 -0.11986166
0.069438741 0.13877016 -0.11986017
0.068512261 0.14047369 -0.11985868
0.067585766 0.14217716 -0.11985719
0.16555613 0.15704194 -0.0029458404
0.16808616 0.15893364 0.00097858906
0.16862859 0.16055375 0.0025490522
0.16784176 0.16200051 0.0025503039
0.16905682 0.16369244 0.0049055219
0.16827267 0.16513422 0.0049067736
0.16748855 0.16657606 0.0049080253
0.16804431 0.1681715 0.006478548
0.16726194 0.16960996 0.0064797997
0.16916677 0.17134252 0.009619534
0.16838799 0.1727744 0.0096207857
0.16962995 0.17441705 0.011975884
0.16885386 0.17584407 0.011977077
0.16942845 0.17740479 0.013547599
0.16865416 0.17882851 0.013548791
0.16787985 0.18025222 0.013550043
0.16710547 0.18167591 0.013551295
0.16768911 0.18322027 0.015121758
0.16691659 0.18464062 0.01512301
0.16750553 0.18617508 0.016693413
0.16673481 0.18759227 0.016694665
0.16596404 0.18900934 0.016695917
0.1651933 0.1904265 0.016697168
0.1657912 0.19194451 0.018267512
0.16502227 0.19335833 0.018268764
0.16425332 0.19477209 0.018269956
0.16348439 0.19618598 0.018271208
0.16409126 0.19768754 0.019841671
0.1633241 0.19909805 0.019842923
0.16255702 0.20050853 0.019844174
0.16317095 0.20199695 0.021414518
0.1624056 0.20340419 0.02141571
0.16164023 0.20481142 0.021416962
0.1662344 0.21076015 0.030052245
0.1654789 0.21214929 0.030053437
0.16536514 0.21497586 0.031625092
0.16461141 0.21636167 0.031626284
0.16525853 0.2177892 0.033196568
0.16590928 0.21921021 0.034766972
0.16656353 0.22062448 0.036337256
0.16581517 0.22200042 0.036338449
0.16506688 0.22337636 0.036339641
0.16643322 0.22479025 0.038694561
0.16709919 0.22618321 0.040264904
0.16635537 0.22755089 0.040266097
0.16561143 0.22891867 0.040267289
0.17960352 -0.08172363 -0.13395524
0.17866269 -0.079993844 -0.13395369
0.17772186 -0.078264058 -0.1339522
0.17842764 -0.075644135 -0.13159245
0.17748949 -0.073919177 -0.13159096
0.17655137 -0.072194278 -0.13158941
0.17561322 -0.070469499 -0.13158792
0.17633241 -0.067874253 -0.12922812
0.17539698 -0.066154242 -0.12922662
0.17446151 -0.06443429 -0.12922513
0.17352605 -0.062714398 -0.12922364
0.17259061 -0.060994446 -0.12922215
0.17165515 -0.059274554 -0.1292206
0.17071971 -0.057554543 -0.12921911
0.17201906 -0.054720283 -0.1260733
0.17108715 -0.053006887 -0.12607181
0.17015532 -0.051293552 -0.12607032
0.16922346 -0.049580216 -0.12606883
0.16829157 -0.047866821 -0.12606734
0.16735971 -0.046153486 -0.12606585
0.16642785 -0.044440091 -0.12606436
0.16549599 -0.042726755 -0.12606287
0.1645641 -0.04101342 -0.12606138
0.16136527 -0.040355146 -0.12920415
0.16042978 -0.038635254 -0.12920266
0.15949434 -0.036915243 -0.12920111
0.15855891 -0.035195351 -0.12919962
0.15762347 -0.033475399 -0.12919813
0.156688 -0.031755507 -0.12919664
0.15575257 -0.030035496 -0.12919515
0.15481713 -0.028315544 -0.12919366
0.15388161 -0.026595652 -0.12919217
0.1529462 -0.0248757 -0.12919062
0.15201074 -0.023155689 -0.12918913
0.1510753 -0.021435797 -0.12918764
0.15013987 -0.019715846 -0.12918615
0.1492044 -0.017995954 -0.12918466
0.148269 -0.016275942 -0.12918317
0.1473335 -0.01455605 -0.12918162
0.14639807 -0.012836099 -0.12918013
0.14546263 -0.011116207 -0.12917864
0.14452717 -0.009396255 -0.12917715
0.14359176 -0.0076762438 -0.12917566
0.1426563 -0.0059563518 -0.12917417
0.14172086 -0.0042364001 -0.12917268
0.14078543 -0.0025164485 -0.12917113
0.1398499 -0.00079649687 -0.12916964
0.1389145 0.00092345476 -0.12916815
0.13797903 0.0026433468 -0.12916666
0.1370436 0.004363358 -0.12916517
0.13610816 0.00608325 -0.12916368
0.13517272 0.0078032017 -0.12916219
0.13423726 0.0095230937 -0.12916064
0.13330176 0.011243045 -0.12915915
0.13236633 0.012963057 -0.12915766
0.13143089 0.014682949 -0.12915617
0.13049546 0.0164029 -0.12915468
0.12955999 0.018122852 -0.12915319
0.12862459 0.019842803 -0.12915164
0.13008502 0.022380888 -0.12600613
0.12915313 0.024094164 -0.12600464
0.1282213 0.025807559 -0.12600315
0.12728941 0.027520895 -0.12600166
0.12635756 0.029234231 -0.12600017
0.12301186 0.030162394 -0.1291427
0.12207642 0.031882346 -0.12914115
0.12114099 0.033602297 -0.12913966
0.12020552 0.035322189 -0.12913817
0.11927006 0.037042201 -0.12913668
0.11833459 0.038762152 -0.12913519
0.11557266 0.039922833 -0.13149172
0.11463451 0.041647673 -0.13149023
0.1136964 0.043372571 -0.13148868
0.11275828 0.04509747 -0.13148719
0.11365733 0.047361851 -0.12912768
0.11272195 0.049081802 -0.12912619
0.11178645 0.050801754 -0.1291247
0.11331138 0.053221226 -0.12597924
0.11237954 0.05493468 -0.12597775
0.11329834 0.057162941 -0.1236183
0.11236912 0.058871388 -0.12361681
0.11143993 0.060579777 -0.12361532
0.11051077 0.062288225 -0.12361383
0.1095816 0.063996613 -0.12361234
0.10865241 0.065705001 -0.12361085
0.10772322 0.06741339 -0.12360936
0.10679406 0.069121838 -0.12360787
0.10586488 0.070830286 -0.12360638
0.10493571 0.072538733 -0.12360489
0.10400653 0.074247181 -0.1236034
0.10307734 0.07595557 -0.12360191
0.10214818 0.077664018 -0.12360042
0.10121892 0.079372406 -0.12359893
0.10028976 0.081080854 -0.12359744
0.09936057 0.082789272 -0.12359595
0.098431408 0.08449772 -0.12359446
0.097502217 0.086206049 -0.12359297
0.096573055 0.087914497 -0.12359154
0.095643863 0.089622915 -0.12359005
0.096619114 0.091747433 -0.12123066
0.09569256 0.093450963 -0.12122917
0.09476614 0.095154434 -0.12122768
0.09383963 0.096857846 -0.12122619
0.092913076 0.098561347 -0.1212247
0.091986597 0.10026482 -0.12122321
0.089139566 0.10158184 -0.12357962
0.088210404 0.10329032 -0.12357813
0.087281212 0.10499871 -0.12357664
0.08635205 0.10670716 -0.12357515
0.085422859 0.10841554 -0.12357366
0.084493697 0.11012402 -0.12357217
0.083564505 0.11183241 -0.12357068
0.082635343 0.1135408 -0.12356919
0.081706151 0.11524919 -0.1235677
0.08077693 0.11695766 -0.12356621
0.079847738 0.11866605 -0.12356472
0.078918561 0.1203745 -0.12356323
0.077989385 0.12208289 -0.12356174
0.079015642 0.12411365 -0.12120241
0.078089222 0.12581712 -0.12120092
0.077162653 0.12752053 -0.12119943
0.076236159 0.129224 -0.12119794
0.075309679 0.13092756 -0.12119651
0.074383169 0.13263103 -0.12119502
0.073456675 0.1343345 -0.12119353
0.072530136 0.13603798 -0.12119204
0.073580518 0.13802424 -0.11883277
0.07265678 0.13972276 -0.11883128
0.071732968 0.14142132 -0.11882979
0.070809141 0.14311981 -0.1188283
0.16661631 0.15761957 -0.004083395
0.16914032 0.15950799 -0.00015258789
0.16835171 0.16095805 -0.00015133619
0.16889352 0.16257355 0.0014217496
0.16810668 0.16402024 0.0014230609
0.16932088 0.16570526 0.0037820339
0.16853669 0.1671471 0.0037832856
0.16775252 0.16858882 0.0037845373
0.16830778 0.17017975 0.0053576231
0.16752543 0.17161822 0.0053588748
0.16808602 0.17319915 0.006931901
0.16865022 0.17477348 0.0085049868
0.16989122 0.17640927 0.0108639
0.16911513 0.17783624 0.010865152
0.16833903 0.1792632 0.010866404
0.16891487 0.18081608 0.01243943
0.16814056 0.18223977 0.012440681
0.16736625 0.18366352 0.012441933
0.16794927 0.18520322 0.014015019
0.16717665 0.18662369 0.014016211
0.1664042 0.18804401 0.014017463
0.16563168 0.18946445 0.014018714
0.16622351 0.1909878 0.015591681
0.16545285 0.19240484 0.015592873
0.16605017 0.19391835 0.017165899
0.16528122 0.19533211 0.017167091
0.16451223 0.19674599 0.017168343
0.16374335 0.19815972 0.017169595
0.16297437 0.19957361 0.017170787
0.16358244 0.2010673 0.018743813
0.16281524 0.20247781 0.018745005
0.16204816 0.20388833 0.018746257
0.16128094 0.20529884 0.018747449
0.16051382 0.20670936 0.018748701
0.15836075 0.20805639 0.017178178
0.16724429 0.21131042 0.028968632
0.16648877 0.21269953 0.028969824
0.16573326 0.21408862 0.028971016
0.16637263 0.21552479 0.030543983
0.1656189 0.2169106 0.030545175
0.16626373 0.21833685 0.032118082
0.16551174 0.21971938 0.032119274
0.16616181 0.22113568 0.033692181
0.16681556 0.22254542 0.035265088
0.16606715 0.22392142 0.03526628
0.16743001 0.22533324 0.037625015
0.16668434 0.2267043 0.037626207
0.16593868 0.22807533 0.037627399
0.16660577 0.22946042 0.039200366
0.17968163 -0.074960887 -0.13293803
0.17874354 -0.073236048 -0.13293654
0.17780536 -0.071511149 -0.13293499
0.17686728 -0.069786251 -0.1329335
0.17758286 -0.067192972 -0.13056982
0.17664739 -0.06547296 -0.13056833
0.17571193 -0.063753068 -0.13056684
0.17477649 -0.062033176 -0.13056535
0.17384103 -0.060313225 -0.13056386
0.17290559 -0.058593273 -0.13056231
0.17197016 -0.056873322 -0.13056082
0.17326471 -0.054041564 -0.12740988
0.17233282 -0.052328229 -0.12740839
0.17140096 -0.050614953 -0.1274069
0.17046911 -0.048901498 -0.12740541
0.16953722 -0.047188163 -0.12740391
0.16860536 -0.045474827 -0.12740242
0.1676735 -0.043761432 -0.12740093
0.16674167 -0.042048097 -0.12739944
0.16580975 -0.040334761 -0.12739795
0.16487792 -0.038621426 -0.12739646
0.163946 -0.036908031 -0.12739497
0.16074479 -0.036234021 -0.13054281
0.15980932 -0.034514129 -0.13054132
0.15887389 -0.032794178 -0.13053983
0.16021857 -0.030054569 -0.12738895
0.15928668 -0.028341234 -0.12738746
0.15606755 -0.027634323 -0.13053536
0.15513206 -0.025914431 -0.13053387
0.15419662 -0.02419436 -0.13053232
0.15326118 -0.022474468 -0.13053083
0.15232572 -0.020754576 -0.13052934
0.15139028 -0.019034624 -0.13052785
0.15045485 -0.017314672 -0.13052636
0.14951941 -0.015594721 -0.13052487
0.15089989 -0.012920976 -0.12737405
0.14996803 -0.0112077 -0.12737256
0.14903614 -0.0094942451 -0.12737107
0.14810428 -0.0077809691 -0.12736958
0.14717239 -0.006067574 -0.12736809
0.14624059 -0.0043541789 -0.1273666
0.1453087 -0.002640903 -0.12736511
0.14203581 -0.001835227 -0.13051283
0.14110035 -0.00011527538 -0.13051134
0.14016491 0.0016046762 -0.13050985
0.13922945 0.0033246279 -0.13050836
0.13829404 0.0050445795 -0.13050687
0.13735858 0.0067644715 -0.13050538
0.13642314 0.0084844232 -0.13050389
0.13548771 0.010204375 -0.13050234
0.13455218 0.011924326 -0.13050085
0.13361678 0.013644278 -0.13049936
0.13268131 0.01536423 -0.13049787
0.13174587 0.017084181 -0.13049638
0.13081044 0.018804073 -0.13049489
0.12987503 0.020524025 -0.13049334
0.13133061 0.023059487 -0.1273427
0.13039881 0.024772823 -0.12734121
0.12946695 0.026486218 -0.12733972
0.12853509 0.028199553 -0.12733823
0.12760317 0.029912949 -0.12733674
0.12667131 0.031626284 -0.12733519
0.12573946 0.033339679 -0.1273337
0.12480757 0.035053015 -0.12733221
0.12387574 0.03676635 -0.12733072
0.12294388 0.038479745 -0.12732923
0.12201199 0.040193021 -0.12732774
0.11864963 0.041163325 -0.1304754
0.11771417 0.042883337 -0.13047391
0.11677873 0.044603229 -0.13047236
0.1158433 0.04632318 -0.13047087
0.11490777 0.048043072 -0.13046938
0.11397243 0.049763083 -0.13046789
0.11548892 0.052186608 -0.12731731
0.11455704 0.053899944 -0.12731582
0.1154696 0.056131244 -0.1249525
0.11454041 0.057839632 -0.124951
0.11546098 0.060055912 -0.12258768
0.11453454 0.061759412 -0.12258619
0.113608 0.063462973 -0.1225847
0.11268152 0.065166473 -0.12258321
0.11175501 0.066869915 -0.12258172
0.11082852 0.068573356 -0.12258023
0.10990204 0.070276856 -0.12257874
0.1089755 0.071980417 -0.12257725
0.10804904 0.073683858 -0.12257582
0.10712256 0.075387359 -0.12257433
0.10619608 0.07709083 -0.12257284
0.10526952 0.078794301 -0.12257135
0.10434307 0.080497742 -0.12256986
0.10341653 0.082201272 -0.12256837
0.10249005 0.083904803 -0.12256688
0.099673465 0.085174382 -0.12492716
0.098744288 0.08688277 -0.12492567
0.099710569 0.089015186 -0.12256241
0.098784074 0.090718716 -0.12256092
0.097857565 0.092422158 -0.12255949
0.096931085 0.094125688 -0.122558
0.096004546 0.095829159 -0.12255651
0.095078081 0.09753257 -0.12255502
0.094151601 0.099236071 -0.12255353
0.093225062 0.1009396 -0.12255204
0.092298567 0.10264307 -0.12255055
0.091372117 0.10434654 -0.12254906
0.090445578 0.10605004 -0.12254757
0.089519098 0.10775352 -0.12254608
0.088592634 0.10945693 -0.12254459
0.085735753 0.11080065 -0.12490487
0.084806502 0.11250907 -0.12490338
